# 3D point list with one line of data per point:
#   POINT3D_ID, X, Y, Z, R, G, B, ERROR, TRACK[] as (IMAGE_ID, POINT2D_IDX)
# Number of points: 409, mean track length: 4.0324195114663484
8913 -0.017297252157711329 0.089749347224144405 0.83790484333244486 188 187 184 -1 10 736 11 725 13 2171
8912 0.088670229137201351 -0.08546810615902023 0.62725349555994803 231 227 220 -1 9 2023 10 735 13 2170 15 2182
8911 0.1051923217073292 0.0012388702898625814 0.54627778224468482 235 126 131 -1 9 2022 10 734 12 1501 13 2169 14 1660 15 2181
8910 -0.13954325352093155 -0.023759705688720323 0.60148879872500038 242 199 157 -1 10 733 12 1500 13 2168 15 2180
8909 -0.038969517364658257 0.026173209735429581 0.63638216918201418 115 138 42 -1 9 2021 12 1499 13 2167 14 1659 15 2179
8908 -0.14890609132539778 0.0095862457038351501 0.60471175171838409 88 65 39 -1 9 2020 12 1498 13 2166 14 1658 15 2178
8907 0.1240741785374187 -0.14194644576485083 0.57253074111505975 236 232 223 -1 10 732 12 1497 13 2165 15 2177
8906 0.1406457098035559 -0.048509219214355026 0.51914331989522267 231 221 219 -1 9 2019 10 731 12 1496 13 2164 15 2176
8905 0.1502339490328288 -0.021934426891484837 0.49599029368758829 236 229 220 -1 9 2018 10 730 12 1495 13 2163 15 2175
8904 0.13025926421134384 0.04065034024787606 0.5285305842414405 223 213 201 -1 9 2017 12 1494 13 2162 14 1657 15 2174
8903 0.088644621721272188 -0.10103834089300001 0.60026470678405663 207 163 176 -1 9 2016 10 729 12 1493 13 2161 15 2173
8902 0.13818266350834887 -0.05597092187348518 0.52457572336647207 222 213 206 -1 9 2015 10 728 12 1492 13 2160 15 2172
8901 0.13493433868393184 -0.063174405199363015 0.5374261673610593 219 210 201 -1 10 727 12 1491 13 2159 15 2171
8900 0.11167096104040414 0.01697944518520289 0.57388582786560349 225 219 215 -1 9 2014 13 2158 14 1656 15 2170
8899 0.10975925773554823 0.0034701110653858613 0.54175327423991138 195 74 77 -1 9 2013 10 726 12 1490 13 2157 14 1655 15 2169
8898 0.10204947037471482 -0.026083101888573101 0.5547102447880593 168 117 129 -1 9 2012 10 725 12 1489 13 2156 14 1654 15 2168
8897 -0.031977949477294709 0.077192087713452873 0.85495470283329189 66 98 171 -1 9 2011 10 724 11 724 13 2155 14 1653 15 2167
8896 0.090150848456570676 -0.071459720300262264 0.57923814397196138 252 239 251 -1 9 2010 10 723 12 1488 13 2154 15 2166
8895 0.073083770117009894 0.0072710137264755392 0.66020797823621158 186 180 154 -1 9 2009 10 722 12 1487 13 2153 15 2165
8894 0.06945864187173012 -0.0053948572696213004 0.67456426728000707 202 187 166 -1 9 2008 10 721 12 1486 13 2152 15 2164
8893 0.1362124308883409 -0.05584585141941889 0.53310318582817562 213 204 198 -1 10 720 12 1485 13 2151 15 2163
8892 0.12736219646911354 -0.14887855268378669 0.57210267513117419 185 181 170 -1 10 719 12 1484 13 2150 15 2162
8891 0.12837191203915335 -0.13279584444228532 0.56343127345469934 188 184 173 -1 9 2007 10 718 12 1483 13 2149 15 2161
8890 0.099199158152020517 -0.044604837570149214 0.5984015013680567 219 213 214 -1 9 2006 13 2148 15 2160
8889 0.13464670470040446 -0.055421006118195004 0.53831077111932213 213 205 194 -1 10 717 12 1482 13 2147 15 2159
8888 0.14736565228451159 -0.049277592913044899 0.50896951683702385 171 164 148 -1 9 2005 10 716 12 1481 13 2146 15 2158
8887 -0.020167823512815847 0.012512702776927731 0.63739255966844377 163 148 16 -1 9 2004 12 1480 13 2145 15 2157
8886 0.10137176248559016 -0.012806843347789254 0.60582054393949358 200 187 177 -1 9 2003 13 2144 14 1652 15 2156
8885 0.092789101039600724 -0.053336876363848096 0.58425635823069388 206 135 151 -1 9 2002 10 715 13 2143 14 1651 15 2155
8884 0.1358105575463317 -0.08345845303954047 0.539307496377186 214 204 194 -1 9 2001 10 714 12 1479 13 2142 15 2154
8883 0.11212416794458571 0.011832304965211704 0.57428720578928072 227 218 209 -1 9 2000 13 2141 14 1650 15 2153
8882 0.064238683402848273 0.036337470890942636 0.67526184629907393 183 148 131 -1 9 1999 12 1478 13 2140 14 1649 15 2152
8881 0.14669001129298936 0.040300645540899516 0.52232148477243978 155 148 133 -1 9 1998 13 2139 14 1648 15 2151
8880 0.018723095094617781 -0.014825344676245411 0.671265332181602 237 220 226 -1 10 713 12 1477 13 2138
8879 0.10757263324524341 0.011811870080721487 0.5854060329980062 220 211 206 -1 9 1997 13 2137 14 1647 15 2150
8878 0.002097380709998764 -0.00043396790053229495 0.64872205141521289 190 169 37 -1 10 712 12 1476 13 2136 15 2149
8877 -0.028302093200187395 0.13599338311270354 0.81535684483730064 232 243 248 -1 9 1996 10 711 11 723 13 2135 14 1646 15 2148
8876 0.03617104515050823 0.093317498715059455 0.73119964890631617 222 218 209 -1 9 1995 13 2134 14 1645 15 2147
8875 0.13071485168299113 -0.056046301844699942 0.54742195636965885 215 207 196 -1 10 710 12 1475 13 2133 15 2146
8874 -0.14661306430586987 0.0138185532314542 0.61008381944986612 206 182 24 -1 9 1994 13 2132 14 1644 15 2145
8873 -0.11548463915186263 0.021397818060291174 0.61926356323493381 101 94 47 -1 9 1993 12 1474 13 2131 14 1643 15 2144
8872 -0.065936015714494062 0.026493863020114916 0.63716378029786802 208 185 26 -1 9 1992 12 1473 13 2130 14 1642 15 2143
8871 -0.14287571259806292 -0.0027026603283222261 0.59397384570835943 242 224 51 -1 9 1991 12 1472 13 2129 15 2142
8870 0.08623091292973159 -0.092445859330629765 0.60270252048117523 195 139 151 -1 9 1990 10 709 12 1471 13 2128 15 2141
8869 0.082173589775303368 -0.10790654180068693 0.6359047191495999 232 228 225 -1 9 1989 10 708 13 2127 15 2140
8868 -0.026223897732384538 0.1418359092298126 0.8120632674356506 167 186 211 -1 9 1988 10 707 11 722 13 2126 14 1641 15 2139
8867 -0.03124915139005896 0.13561345852297002 0.82414421186914888 211 220 221 -1 9 1987 10 706 11 721 13 2125 14 1640 15 2138
8866 0.097165040689563942 -0.039796429291061419 0.5922487712168415 202 193 191 -1 9 1986 13 2124 14 1639 15 2137
8865 0.15824326467002081 0.018860113156559888 0.49407447218487177 159 151 134 -1 9 1985 12 1470 13 2123 14 1638 15 2136
8864 -0.12473668366431542 -0.00020175908982200674 0.59201016556503638 221 198 34 -1 9 1984 12 1469 13 2122 15 2135
8863 -0.044306520225647961 0.039764239816790004 0.87680952172434345 238 238 218 -1 10 705 11 720 13 2121
8862 0.10646653442663906 -0.015821575736926663 0.59176343697713418 207 193 185 -1 9 1983 13 2120 14 1637 15 2134
8861 0.13559570488677697 -0.043879556861251223 0.53134044903237054 219 210 201 -1 10 704 12 1468 13 2119 15 2133
8860 0.13921893944107389 -0.01940962994689921 0.51388534048969325 229 224 218 -1 9 1982 10 703 12 1467 13 2118 15 2132
8859 -0.13138164462599589 -0.024001787897244276 0.57279673637959416 199 103 86 -1 9 1981 10 702 12 1466 13 2117 15 2131
8858 -0.051911879405995925 0.032818131321717181 0.64460274732748313 43 113 103 -1 9 1980 12 1465 13 2116 14 1636 15 2130
8857 -0.011627236785118678 0.034010889325870819 0.64784328214979381 24 86 69 -1 9 1979 12 1464 13 2115 14 1635 15 2129
8856 0.13054349232842771 -0.083398256981184749 0.54950642577547903 211 203 192 -1 10 701 12 1463 13 2114 15 2128
8855 0.13821860464647573 -0.033543975493605216 0.52012739167706268 229 220 215 -1 9 1978 10 700 12 1462 13 2113 15 2127
8854 0.14182202866988863 -0.083135477997925089 0.5292482966113593 183 181 167 -1 10 699 12 1461 13 2112 15 2126
8853 0.1241756572383361 0.038757737727684094 0.54169580447366994 228 221 212 -1 9 1977 13 2111 14 1634 15 2125
8852 0.11077391751382415 0.0056120500028966624 0.56888157690381991 227 198 190 -1 9 1976 13 2110 14 1633 15 2124
8851 -0.043251596182930313 -0.016875734139473964 0.64754921891911976 141 131 19 -1 10 698 12 1460 13 2109 15 2123
8850 0.11329631309182489 -0.079232309333458373 0.57954821763767328 213 200 199 -1 10 697 12 1459 13 2108 15 2122
8849 0.15317500516723159 -0.021701163324058581 0.49032372480680192 173 166 154 -1 9 1975 10 696 12 1458 13 2107 15 2121
8848 0.11136628148905042 0.0036633162088226534 0.54095442670639848 192 69 72 -1 9 1974 10 695 12 1457 13 2106 14 1632 15 2120
8847 0.099871114025187502 -0.015145773124124906 0.56242591804964159 204 114 116 -1 9 1973 12 1456 13 2105 14 1631 15 2119
8846 0.030033341210976727 -0.0079660320905688975 0.67791507848297272 221 218 188 -1 10 694 12 1455 13 2104
8845 0.0094294631866710943 0.053213217049800088 0.68168390657676214 52 91 94 -1 9 1972 13 2103 14 1630 15 2118
8844 0.13595171930240285 -0.04494233372793055 0.53050891624100416 224 215 207 -1 10 693 12 1454 13 2102 15 2117
8843 -0.034643931580967596 0.026230162379651589 0.6363355137359199 129 145 41 -1 9 1971 12 1453 13 2101 14 1629 15 2116
8842 -0.13258999053010834 -0.016136123256753732 0.58139628895725992 215 125 97 -1 9 1970 10 692 12 1452 13 2100 14 1628 15 2115
8841 -0.088153787248995419 0.022911630525324411 0.6377698249790833 186 123 54 -1 9 1969 13 2099 14 1627 15 2114
8840 0.14850777281886515 -0.026298875315579173 0.50022529041190689 229 222 215 -1 9 1968 10 691 12 1451 13 2098 15 2113
8839 0.13398672292428099 -0.11353972076952612 0.54892855399428309 180 177 169 -1 10 690 12 1450 13 2097 15 2112
8838 -0.036103084178983724 -0.0080575951693140357 0.64041854186029801 210 201 22 -1 10 689 12 1449 13 2096 15 2111
8837 -0.03687635478742457 0.10579918290401552 0.83816102311618135 155 172 213 -1 9 1967 10 688 11 719 13 2095 14 1626 15 2110
8836 0.10387514275220111 -0.01978671964458667 0.55214369538199071 228 126 137 -1 9 1966 10 687 12 1448 13 2094 14 1625 15 2109
8835 0.10556424824395561 -0.013643443728870386 0.57821140639854018 192 179 163 -1 9 1965 13 2093 14 1624 15 2108
8834 0.15469751027916404 0.011241694120326606 0.48320427846726166 163 154 143 -1 9 1964 12 1447 13 2092 14 1623 15 2107
8833 -0.021145223940250923 0.27148341664189435 0.83870736282714764 202 195 183 -1 9 1963 13 2091 14 1622
8832 0.1357213445389901 0.03314194557358896 0.51696129496805854 225 216 207 -1 9 1962 12 1446 13 2090 14 1621 15 2106
8831 0.13793164914180225 -0.079446315113810284 0.53356608104189107 223 216 201 -1 9 1961 10 686 12 1445 13 2089 15 2105
8830 0.10468527824679005 -0.016290014220775695 0.550998929628434 211 108 117 -1 9 1960 10 685 12 1444 13 2088 14 1620 15 2104
8829 0.14423465178983491 -0.046219889858241436 0.51380536082051786 235 226 222 -1 9 1959 10 684 12 1443 13 2087 15 2103
8828 -0.091111480751039753 0.014251953204929224 0.629868557383918 206 177 35 -1 9 1958 12 1442 13 2086 14 1619 15 2102
8827 0.12873066787079174 -0.046122284690479076 0.54660321975650894 210 202 191 -1 10 683 12 1441 13 2085 15 2101
8826 0.0014570302684557834 0.033898446872157373 0.64915738433899184 141 150 26 -1 9 1957 12 1440 13 2084 14 1618 15 2100
8825 -0.059216450499682327 0.0053108071942157276 0.63342491096149312 209 107 131 -1 9 1956 12 1439 13 2083 15 2099
8824 0.11791965955333983 0.013110530964708267 0.54644043757745198 129 64 68 -1 9 1955 12 1438 13 2082 14 1617 15 2098
8823 -0.048594112509606491 0.077852361267878534 0.87045801829744041 236 247 254 -1 9 1954 10 682 11 718 13 2081 14 1616 15 2097
8822 0.13053350124530899 -0.092102161710691077 0.55198780633284006 225 216 207 -1 10 681 12 1437 13 2080 15 2096
8821 0.14200718922225852 0.070662697070109637 0.69573712075192096 143 143 135 -1 13 2079 15 2095
8820 0.1313415350907593 -0.0055720604826885456 0.53031862892626913 223 214 207 -1 9 1953 10 680 12 1436 13 2078 15 2094
8819 -0.11612379896638084 -0.0062981387851855919 0.59348463471561042 216 190 59 -1 9 1952 12 1435 13 2077 15 2093
8818 -0.027333169169886151 0.0099065342741946338 0.63467623038418142 191 184 57 -1 9 1951 12 1434 13 2076 15 2092
8817 0.14433444920534344 -0.070592429464231499 0.52097090224751319 180 173 163 -1 9 1950 10 679 12 1433 13 2075 15 2091
8816 0.14455080678062365 -0.0058550380204172026 0.50253680976562998 220 215 209 -1 9 1949 10 678 12 1432 13 2074 14 1615 15 2090
8815 0.10220633833108572 0.049712875879181162 0.58991367550798157 219 211 200 -1 9 1948 12 1431 13 2073 14 1614 15 2089
8814 0.086194099252743045 -0.088733994375463143 0.62028887958972234 230 222 219 -1 9 1947 10 677 13 2072 15 2088
8813 0.099081692373825803 -0.048264968227673233 0.61229424282680178 220 210 203 -1 9 1946 13 2071 15 2087
8812 0.087260208463638439 -0.11135810275049285 0.60784322387330947 221 185 197 -1 9 1945 10 676 12 1430 13 2070 15 2086
8811 0.037427891649132183 0.10766640723104726 0.72698093918825413 224 219 213 -1 9 1944 13 2069 14 1613 15 2085
8810 0.12920976797134381 -0.086017642315582066 0.55584753356567562 215 206 197 -1 10 675 12 1429 13 2068 15 2084
8809 -0.13150659435608777 0.013610352405290294 0.60249520305341131 186 177 106 -1 9 1943 12 1428 13 2067 14 1612 15 2083
8808 0.13660999520806957 0.037341682587788805 0.51894558359175091 198 187 169 -1 9 1942 12 1427 13 2066 14 1611 15 2082
8807 -0.12738709429589748 -0.029181081195454706 0.57572751121596011 189 128 116 -1 9 1941 10 674 12 1426 13 2065 15 2081
8806 0.13762609066171866 0.035910568321661729 0.51594547708129657 183 172 161 -1 9 1940 12 1425 13 2064 14 1610 15 2080
8805 0.096385739916740404 -0.028855926097340778 0.57384813940925627 184 177 182 -1 9 1939 13 2063 14 1609 15 2079
8804 0.14339545295221723 -0.02984459293549957 0.50821426260745606 231 226 220 -1 9 1938 10 673 12 1424 13 2062 15 2078
8803 0.10453937576545058 -0.065598451203854991 0.57200504850957912 193 191 199 -1 10 672 12 1423 13 2061 15 2077
8802 -0.016912700496697797 0.029322152895582709 0.6406633483693619 121 130 35 -1 9 1937 12 1422 13 2060 14 1608 15 2076
8801 0.11195729482700939 0.0095505064653064187 0.56996197614235555 227 212 203 -1 9 1936 13 2059 14 1607 15 2075
8800 -0.0057758183052213918 -0.012641990741427467 0.65144214511557175 196 186 50 -1 10 671 12 1421 13 2058 15 2074
8799 0.13564590959275197 -0.052639813020325166 0.53377377749510257 211 203 192 -1 10 670 12 1420 13 2057 15 2073
8798 0.096212256764773546 -0.06091239295604145 0.57089641181797124 205 213 225 -1 9 1935 10 669 12 1419 13 2056 15 2072
8797 0.11465632135257789 -0.11131258455230575 0.58460968641629663 227 220 217 -1 10 668 12 1418 13 2055 15 2071
8796 0.1594999311043151 0.0089077720635863944 0.48046513987650386 163 147 128 -1 9 1934 12 1417 13 2054 14 1606 15 2070
8795 0.11203925105131782 -0.19010368922347309 0.60758161873968664 242 237 237 -1 10 667 12 1416 13 2053 15 2069
8794 0.0030509573420022806 0.034672888495236975 0.65082610375345318 138 148 37 -1 9 1933 12 1415 13 2052 14 1605 15 2068
8793 0.16173529022785416 0.019314960381021096 0.4944544723417984 149 142 128 -1 9 1932 12 1414 13 2051 14 1604 15 2067
8792 0.12628659572188677 -0.00057173537688126608 0.53933773809391683 197 181 172 -1 9 1931 12 1413 13 2050 14 1603 15 2066
8791 0.12639176835271612 -0.081498999927520077 0.56031511767615039 212 204 196 -1 10 666 12 1412 13 2049 15 2065
8790 0.054409969844458173 0.042116714309234693 0.68428169380713821 155 82 56 -1 9 1930 12 1411 13 2048 14 1602 15 2064
8789 0.02218230629514667 0.11258413714136906 0.75544830366684201 219 210 202 -1 9 1929 13 2047 14 1601 15 2063
8788 0.30326798015458789 0.047499306377699391 0.83239993049722172 144 144 142 -1 13 2046 15 2062
8787 -0.15314719000867838 0.012025706906914291 0.62110681794989953 206 188 27 -1 9 1928 13 2045 14 1600 15 2061
8786 0.097322438810755113 -0.051835897327014324 0.56943789387730104 167 151 175 -1 9 1927 10 665 12 1410 13 2044 14 1599 15 2060
8785 0.013380753437625847 -0.0074244985301602506 0.66363347011678564 195 188 111 -1 10 664 12 1409 13 2043
8784 0.14344233193245859 -0.010902013269965871 0.50634886278253255 230 225 219 -1 9 1926 10 663 12 1408 13 2042 15 2059
8783 0.10481888063136113 -0.044717358664044582 0.56235920687407959 176 183 192 -1 9 1925 10 662 12 1407 13 2041 14 1598 15 2058
8782 -0.074108752730442651 -0.0091207275664667575 0.64334536932113429 214 206 46 -1 10 661 12 1406 13 2040 15 2057
8781 0.085798298733945899 0.0032299490048434132 0.63648875530472582 199 187 173 -1 9 1924 10 660 12 1405 13 2039 14 1597 15 2056
8780 0.0097238578274280729 0.039904230859626133 0.65922549777841777 118 139 54 -1 9 1923 12 1404 13 2038 14 1596 15 2055
8779 -0.080413112832484673 -0.0091037306392069972 0.6449623264526595 212 174 80 -1 10 659 12 1403 13 2037
8778 0.036613560480623086 0.034827988330168425 0.67723398742027441 63 86 84 -1 9 1922 12 1402 13 2036 15 2054
8777 -0.13523604886978602 0.0167639570328878 0.61095346915671112 215 212 97 -1 9 1921 12 1401 13 2035 14 1595 15 2053
8776 0.15459781555590418 -0.0001468004370107634 0.48312449506266142 236 228 217 -1 9 1920 10 658 12 1400 13 2034 14 1594 15 2052
8775 0.03043947247973805 -0.0078960285518713258 0.67938133788524147 229 216 185 -1 10 657 12 1399 13 2033
8774 0.13354213758452821 0.042668381849897186 0.52526489574459467 169 157 140 -1 9 1919 12 1398 13 2032 14 1593 15 2051
8773 0.027064341800069613 0.050904203313304364 0.73134086868163384 215 202 171 -1 9 1918 13 2031 14 1592 15 2050
8772 0.12483958408424625 -0.11585833866859996 0.56797008795252524 237 234 229 -1 10 656 12 1397 13 2030 15 2049
8771 0.11135616731184353 -0.028531615399424393 0.55326013735585533 149 102 95 -1 9 1917 10 655 12 1396 13 2029 15 2048
8770 0.10381678824138765 -0.0056267089916520741 0.59757305373051117 214 203 194 -1 9 1916 13 2028 14 1591 15 2047
8769 0.11255225094504823 0.013591877541991537 0.55481489509983106 135 81 80 -1 9 1915 13 2027 14 1590 15 2046
8768 0.1231016197986961 0.022327436330904504 0.54693673634517359 207 195 186 -1 9 1914 13 2026 14 1589 15 2045
8767 0.077199268670599175 0.063357501981525344 0.64115630931676093 209 200 194 -1 9 1913 13 2025 14 1588 15 2044
8766 -0.0069563842764869266 0.031414268114486332 0.64465528935366534 114 131 46 -1 9 1912 12 1395 13 2024 14 1587 15 2043
8765 0.073444141097876781 -0.0097967337108231245 0.66193144212598187 205 193 171 -1 9 1911 10 654 12 1394 13 2023 15 2042
8764 0.13258227654366803 -0.10442471575602075 0.54918001199335997 231 227 219 -1 9 1910 10 653 12 1393 13 2022 15 2041
8763 0.12491128766261317 -0.15719205056288699 0.57704968722564798 187 183 176 -1 10 652 12 1392 13 2021 15 2040
8762 -0.055174356474390951 -0.020844329704899578 0.65684800766160067 222 213 57 -1 10 651 12 1391 13 2020
8761 0.1367293882518959 -0.087167814929458576 0.53879687731103987 226 215 203 -1 9 1909 10 650 12 1390 13 2019 15 2039
8760 0.11914860813817724 0.011599141282873648 0.54562307160668411 157 92 98 -1 9 1908 12 1389 13 2018 14 1586 15 2038
8759 0.093977444013387257 -0.069184052911701599 0.61409073455034191 227 226 221 -1 9 1907 10 649 13 2017 15 2037
8758 0.096097891516066514 -0.081095677468581262 0.57897136833479901 212 211 223 -1 9 1906 10 648 12 1388 13 2016 15 2036
8757 -0.0014542612981148229 0.15407119388743551 0.79802299522339881 181 173 161 -1 10 647 12 1387 13 2015 15 2035
8756 -0.068836023075302621 -0.011338097169717787 0.64582362245017422 215 210 19 -1 10 646 12 1386 13 2014
8755 0.11873083625516331 -0.08537860785294149 0.57309919376070018 225 216 210 -1 10 645 12 1385 13 2013 15 2034
8754 -0.026441482982864695 -0.0015518346114898884 0.63770745055448497 185 184 79 -1 9 1905 10 644 12 1384 13 2012 15 2033
8753 0.11305063354171027 -0.065162853204181248 0.57438851074157471 157 148 133 -1 10 643 12 1383 13 2011 15 2032
8752 -0.023426768232181761 0.047093856145566049 0.870712498878768 227 225 216 -1 10 642 13 2010 15 2031
8751 0.099756194604086301 0.018621362556716758 0.60000941249161965 221 212 203 -1 9 1904 13 2009 14 1585 15 2030
8750 -0.052782634955575392 0.014748375213683107 0.63340028500219969 215 203 33 -1 9 1903 12 1382 13 2008 15 2029
8749 0.081243627338191265 -0.1144351019541141 0.63493051939613132 232 229 226 -1 9 1902 10 641 13 2007 15 2028
8748 -0.0014665459111313228 0.12244745912196486 0.8072195614908424 191 180 174 -1 10 640 13 2006 15 2027
8747 0.11211912710943567 0.1008461610395831 0.62630440155242928 146 141 129 -1 9 1901 13 2005 14 1584 15 2026
8746 0.1337082243331979 -0.10088224010512248 0.54680569505881416 235 228 217 -1 9 1900 10 639 12 1381 13 2004 15 2025
8745 0.14311562865663244 0.028287759286086844 0.50521608113034044 186 174 160 -1 9 1899 12 1380 13 2003 14 1583 15 2024
8744 0.15174448435713209 0.0086665595492995129 0.48449146537119747 233 224 220 -1 9 1898 12 1379 13 2002 14 1582 15 2023
8743 0.11650342690274701 -0.066169830948331065 0.57407881162123386 177 168 153 -1 10 638 12 1378 13 2001 15 2022
8742 0.14029734400760416 -0.034792896199755674 0.51564601449874481 224 217 211 -1 9 1897 10 637 12 1377 13 2000 15 2021
8741 -0.027276126475925311 0.12272108656912328 0.82090897535749252 213 233 251 -1 9 1896 10 636 11 717 13 1999 14 1581 15 2020
8740 0.13801655174107474 -0.055152723786800584 0.52512252175646978 219 210 203 -1 9 1895 10 635 12 1376 13 1998 15 2019
8739 0.14351623375166489 -0.037918783863328809 0.51047713356404323 223 221 223 -1 9 1894 10 634 12 1375 13 1997 15 2018
8738 0.049427227850894817 0.046041672781286014 0.69852443008804121 157 94 80 -1 9 1893 13 1996 14 1580 15 2017
8737 0.13282751249768343 -0.051085776187461018 0.53943561932840223 211 203 192 -1 10 633 12 1374 13 1995 15 2016
8736 0.14171700756961586 -0.082502435850776878 0.52843997595090886 184 182 170 -1 9 1892 10 632 12 1373 13 1994 15 2015
8735 -0.050733245826395296 -0.0068114571985463668 0.64388709946098666 224 170 80 -1 10 631 12 1372 13 1993 15 2014
8734 0.016130733364567218 0.085454874642729994 0.76755534519760371 205 196 187 -1 9 1891 13 1992 14 1579 15 2013
8733 0.14536554354965359 -0.0074534488969781876 0.50188163989283963 226 221 215 -1 9 1890 10 630 12 1371 13 1991 15 2012
8732 0.0011619937712423201 0.16015335672364239 0.79576714964628226 192 182 168 -1 9 1889 12 1370 13 1990 15 2011
8731 0.082812779145641502 -0.040046436851858047 0.64997695910114717 221 218 206 -1 9 1888 10 629 13 1989 15 2010
8730 0.12025664280025156 -0.040378435401287716 0.56039903743869801 166 161 152 -1 10 628 12 1369 13 1988 15 2009
8729 0.082620996947261716 -0.12374345153116939 0.62282130867322105 233 218 226 -1 9 1887 10 627 12 1368 13 1987 15 2008
8728 0.13230477714409317 -0.096468587667424277 0.54774842404164714 232 224 215 -1 9 1886 10 626 12 1367 13 1986 15 2007
8727 0.15511793786983641 0.0098396607424823257 0.4806979660132969 193 180 168 -1 9 1885 12 1366 13 1985 14 1578 15 2006
8726 0.12586014669529957 0.071099749641612697 0.56373128161318609 148 142 130 -1 9 1884 13 1984 14 1577 15 2005
8725 0.10968979298190459 0.067898021633639893 0.56735091507813484 224 216 204 -1 9 1883 12 1365 13 1983 14 1576 15 2004
8724 0.12050974835276207 -0.074267284723997462 0.57126338263160292 203 193 184 -1 10 625 12 1364 13 1982 15 2003
8723 0.12491518742064395 0.055648906346222105 0.54221122908724406 164 151 135 -1 9 1882 12 1363 13 1981 14 1575 15 2002
8722 0.14156678690302718 0.049736837833883607 0.53539335317994663 138 136 125 -1 9 1881 13 1980 14 1574 15 2001
8721 0.089858288678328568 -0.011748130715019234 0.63003272294480117 194 183 169 -1 9 1880 10 624 13 1979 14 1573 15 2000
8720 0.10525446258677432 -0.013792260773779708 0.57646452647932134 193 180 164 -1 9 1879 13 1978 14 1572 15 1999
8719 0.14725794724606073 -0.00014728624010806879 0.49053801637718186 234 230 220 -1 9 1878 10 623 12 1362 13 1977 14 1571 15 1998
8718 0.13392379983932085 -0.071735519832679673 0.54122253476880522 208 199 189 -1 10 622 12 1361 13 1976 15 1997
8717 0.088844913118052898 -0.070388575255949992 0.59579596811034352 169 143 147 -1 9 1877 10 621 13 1975 15 1996
8716 -0.13900956461245739 -0.019758114488910961 0.58910083883757358 160 114 100 -1 9 1876 10 620 12 1360 13 1974 15 1995
8715 0.082450086280549367 0.10667135500881969 0.6197087884421687 221 213 202 -1 9 1875 13 1973 14 1570 15 1994
8714 0.059897423344853151 0.0092186542861540932 0.68170705577606616 161 150 123 -1 10 619 12 1359 13 1972 15 1993
8713 -0.10017559726911635 -0.0060567957142159123 0.63971447202032972 203 188 33 -1 10 618 12 1358 13 1971 15 1992
8712 0.1449106198875508 0.013022453482337548 0.4950839168360891 230 226 222 -1 9 1874 12 1357 13 1970 14 1569 15 1991
8711 0.0037500805979852059 0.025294014962058853 0.64741386743040918 178 149 21 -1 9 1873 12 1356 13 1969 15 1990
8710 0.029569571991212018 0.0018598009257451142 0.67398584859709409 192 161 78 -1 10 617 12 1355 13 1968 15 1989
8709 -0.012289979190888201 0.053662016343579921 0.68244942694195088 55 93 112 -1 9 1872 13 1967 14 1568 15 1988
8708 0.1176685741300203 -0.11825215193493177 0.58337119976202634 233 228 224 -1 10 616 12 1354 13 1966 15 1987
8707 0.11032717800701602 0.0054829112060080787 0.57983934719717167 215 212 200 -1 9 1871 13 1965 14 1567 15 1986
8706 -0.0319311723543802 0.072173026554796349 0.85799094224205552 71 101 195 -1 10 615 11 716 13 1964 14 1566 15 1985
8705 0.020638021832163844 0.012119652674532078 0.65735836382811608 132 115 45 -1 12 1353 13 1963 15 1984
8704 0.10660161972154764 -0.0089067762371941583 0.54902868122254755 187 70 76 -1 9 1870 10 614 12 1352 13 1962 14 1565 15 1983
8703 -0.0078077163276824568 0.11910141548978215 0.82880249905052139 165 151 148 -1 10 613 11 715 13 1961 14 1564
8702 0.091296102698569082 -0.074995458802290971 0.61241035859006965 233 224 219 -1 9 1869 10 612 13 1960 15 1982
8701 0.12540949299175641 -0.11646428214126747 0.56315792908548601 237 234 227 -1 10 611 12 1351 13 1959 15 1981
8700 0.10926403662087747 0.0079434847976930234 0.54577053690111765 173 52 62 -1 9 1868 10 610 12 1350 13 1958 14 1563 15 1980
8699 -0.023575680327067916 0.077238890441603703 0.85515301474345051 47 54 79 -1 10 609 11 714 13 1957 14 1562
8698 0.072918880230880723 0.022113006981784866 0.66391530404991173 185 174 154 -1 9 1867 12 1349 13 1956 14 1561 15 1979
8697 0.12503942427303327 0.076118125940628611 0.58779350209150749 144 141 126 -1 9 1866 13 1955 14 1560 15 1978
8696 -0.026089851027131739 0.051206808466868536 0.68483794023242139 57 102 99 -1 9 1865 13 1954 14 1559 15 1977
8695 0.11184041996566693 -0.12037220631066547 0.59134694816051425 231 223 220 -1 10 608 12 1348 13 1953 15 1976
8694 -0.012206062795071193 0.18123180011663675 0.79792986745285421 202 206 209 -1 9 1864 11 713 12 1347 13 1952 14 1558 15 1975
8693 0.12320536521578718 -0.1255831323956923 0.57169590536476811 236 231 227 -1 10 607 12 1346 13 1951 15 1974
8692 -0.14030817873332269 -0.0093279957443647143 0.59321621317961326 255 239 91 -1 9 1863 10 606 12 1345 13 1950 15 1973
8691 0.12790460461548073 0.073440218359947795 0.6044560675657551 140 137 122 -1 9 1862 13 1949 15 1972
8690 0.085580807708935919 -0.10163038464950958 0.60764455824525299 245 227 226 -1 9 1861 10 605 12 1344 13 1948 15 1971
8689 -0.14406106830567939 0.0040589644004925818 0.5977110056420426 221 194 32 -1 9 1860 12 1343 13 1947 14 1557 15 1970
8688 0.11593923672073575 0.060692640476581183 0.5546559347952551 223 213 200 -1 9 1859 13 1946 14 1556 15 1969
8687 0.013353067318594369 -0.0018898613685019994 0.66004315108259193 178 177 91 -1 10 604 12 1342 13 1945 15 1968
8686 0.13987833228466412 -0.063344819544644215 0.52768460835162745 219 210 201 -1 9 1858 10 603 12 1341 13 1944 15 1967
8685 0.13633689365410986 -0.0025958803647553319 0.5159934977928361 233 224 219 -1 9 1857 10 602 12 1340 13 1943 14 1555 15 1966
8684 0.1142158207357391 -0.0031430520347771607 0.54074244771149393 182 84 83 -1 9 1856 10 601 12 1339 13 1942 14 1554 15 1965
8683 -0.013586691076420243 0.077793466462279137 0.8350889459665074 229 225 219 -1 10 600 11 712 13 1941
8682 0.1356438641388551 0.034415154318838015 0.51831921605873355 220 211 199 -1 9 1855 12 1338 13 1940 14 1553 15 1964
8681 0.098978755518287886 -0.030959671952000778 0.55804734676305334 228 212 232 -1 9 1854 10 599 12 1337 13 1939 14 1552 15 1963
8680 -0.12835844897508372 -0.010967143864544671 0.58533169458385381 204 112 78 -1 9 1853 10 598 12 1336 13 1938 15 1962
8679 0.0015182482954770871 0.0197684879993405 0.64519109914575767 49 67 71 -1 9 1852 12 1335 13 1937 15 1961
8678 0.10371343420478918 -0.053453077655153169 0.56738405193593477 165 161 174 -1 9 1851 10 597 12 1334 13 1936 15 1960
8677 0.085794662689879814 -0.10070586833852968 0.60736354030245199 240 215 215 -1 9 1850 10 596 12 1333 13 1935 15 1959
8676 -0.10849701379373755 0.0020639000749481662 0.60899931212583858 194 176 75 -1 9 1849 12 1332 13 1934 15 1958
8675 0.096035141482305186 -0.029860904199504934 0.57229026161122487 183 181 189 -1 9 1848 13 1933 14 1551 15 1957
8674 0.096602753711028388 -0.0059537925160788596 0.61417039479241875 201 191 179 -1 9 1847 13 1932 14 1550 15 1956
8673 0.10878018167851838 -0.028640897528053766 0.5532321664576404 135 91 90 -1 9 1846 10 595 12 1331 13 1931 15 1955
8672 0.11768537663129464 -0.17019466228336233 0.59016837458464422 242 237 233 -1 10 594 12 1330 13 1930 15 1954
8671 -0.12344732100591638 0.010444528596351255 0.60199526997965724 197 177 19 -1 9 1845 12 1329 13 1929 14 1549 15 1953
8670 -0.030689036677194137 0.08763255547990223 0.84502665351126072 158 175 206 -1 9 1844 10 593 11 711 13 1928 14 1548 15 1952
8669 -0.046611611689913901 0.042861490537261293 0.65727776087717515 32 83 108 -1 9 1843 13 1927 14 1547 15 1951
8668 -0.030491086558387809 -0.015266154496779927 0.64851153907470427 205 205 17 -1 10 592 12 1328 13 1926 15 1950
8667 -0.11156607040649788 -0.0087484199530565299 0.60554122276265865 206 178 107 -1 12 1327 13 1925 15 1949
8666 -0.011115432550739213 0.15660071610330262 0.79733028351851243 160 170 179 -1 9 1842 10 591 12 1326 13 1924 14 1546 15 1948
8665 0.12590066686698492 -0.15079841294204999 0.57314800154088863 189 186 176 -1 10 590 12 1325 13 1923 15 1947
8664 -0.0017565997805246703 0.0076369740409780729 0.64313948876598614 140 147 52 -1 9 1841 12 1324 13 1922 15 1946
8663 0.10022471459238572 -0.069522844911197756 0.57247431223329259 197 199 212 -1 9 1840 10 589 12 1323 13 1921 15 1945
8662 0.14515958917467398 0.043597893297525281 0.52753898183769732 144 137 125 -1 9 1839 13 1920 14 1545 15 1944
8661 -0.029840824574165703 0.054310093937893988 0.86633260061108164 220 224 215 -1 10 588 11 710 13 1919 15 1943
8660 0.052403151568777617 0.045271496574541659 0.69172482631777199 152 87 77 -1 9 1838 12 1322 13 1918 14 1544 15 1942
8659 -0.029664412224352066 0.087769824438528987 0.84426302070399539 166 181 213 -1 9 1837 10 587 11 709 13 1917 14 1543 15 1941
8658 0.13234613999541955 -0.067588840856183219 0.54711766766415626 210 200 190 -1 10 586 12 1321 13 1916 15 1940
8657 0.1453850638519556 0.024481715261170378 0.49916801151765178 189 178 161 -1 9 1836 12 1320 13 1915 14 1542 15 1939
8656 0.11174101530236821 0.013762257883298323 0.57440234318821115 228 219 214 -1 9 1835 13 1914 14 1541 15 1938
8655 0.1390813241323825 0.029069780173915483 0.50791295112003887 230 222 210 -1 9 1834 12 1319 13 1913 14 1540 15 1937
8654 0.093209598054771442 -0.073875983260069056 0.57697489047045503 219 234 247 -1 9 1833 10 585 12 1318 13 1912 15 1936
8653 0.13700785037373828 0.054834173794007901 0.54240483970440567 149 141 126 -1 9 1832 13 1911 14 1539 15 1935
8652 0.10527404712359287 -0.10093917334210489 0.59223195978991927 196 179 175 -1 10 584 12 1317 13 1910 15 1934
8651 -0.11446448072030102 -0.01927675375035609 0.60379048874812768 185 170 109 -1 10 583 12 1316 13 1909 15 1933
8650 0.11611797876387797 -0.035521868727318551 0.55904481337674228 125 119 108 -1 10 582 12 1315 13 1908 15 1932
8649 0.11930422807580998 -0.12097308801280748 0.58241191067307252 235 230 226 -1 10 581 12 1314 13 1907 15 1931
8648 0.14739962773096771 0.013375592739601427 0.49043827797065642 237 228 223 -1 9 1831 12 1313 13 1906 14 1538 15 1930
8647 0.11024035267546234 0.00045064286395224418 0.57354171381942065 232 196 189 -1 9 1830 13 1905 14 1537 15 1929
8646 0.12252784900137337 -0.10300658374574101 0.57156740058141065 235 228 224 -1 10 580 12 1312 13 1904 15 1928
8645 0.10519624107910619 -0.028854487280679963 0.55337474407086285 164 126 134 -1 9 1829 10 579 12 1311 13 1903 14 1536 15 1927
8644 0.11819556542775658 -0.072825117090128511 0.57542397972793258 215 205 193 -1 10 578 12 1310 13 1902 15 1926
8643 0.08457557873434382 0.071599219659662539 0.62220336084159433 215 207 196 -1 9 1828 13 1901 14 1535 15 1925
8642 0.033923585234451492 0.029702650566325484 0.6737211213163683 64 87 75 -1 9 1827 12 1309 13 1900 15 1924
8641 0.10314842444682137 0.04254367919491131 0.58845661077273714 222 214 203 -1 9 1826 12 1308 13 1899 14 1534 15 1923
8640 0.10770135500190012 -0.15917632112897928 0.60972400531480542 241 238 235 -1 10 577 12 1307 13 1898 15 1922
8639 0.041750596887057789 0.016188558288886878 0.67958243639404836 134 114 78 -1 10 576 12 1306 13 1897 15 1921
8638 0.098530156219686443 -0.046753425579564967 0.56823200050705536 182 181 209 -1 9 1825 10 575 12 1305 13 1896 14 1533 15 1920
8637 -0.031160652729943839 0.12837782258789504 0.82274903664126287 224 231 242 -1 9 1824 10 574 11 708 13 1895 14 1532 15 1919
8636 0.12121561085842977 0.022896492870584817 0.55305302758163466 221 208 199 -1 9 1823 13 1894 14 1531 15 1918
8635 0.095857649032016046 -0.045829404344212232 0.57160486272422562 227 221 243 -1 9 1822 10 573 12 1304 13 1893 14 1530 15 1917
8634 0.1254841074129385 0.072586119495507362 0.63437018747193974 157 149 133 -1 9 1821 13 1892 15 1916
8633 0.10131578544806405 -0.014707380475899368 0.55288504236060354 228 129 133 -1 9 1820 10 572 12 1303 13 1891 14 1529 15 1915
8632 0.1460588132242136 0.00033708419692612956 0.4989544480549904 234 225 220 -1 9 1819 10 571 12 1302 13 1890 14 1528 15 1914
8631 -0.026603498727667513 0.047737777630886935 0.66519210601880374 33 86 82 -1 9 1818 13 1889 14 1527 15 1913
8630 0.14190278595610889 -0.081850133035111239 0.52832618963523947 177 174 162 -1 9 1817 10 570 12 1301 13 1888 15 1912
8629 0.098856766919317218 -0.020030386588601679 0.56289945998453894 179 93 99 -1 9 1816 12 1300 13 1887 14 1526 15 1911
8628 0.1475284413298717 -0.034586994079435218 0.5044144242536529 236 231 226 -1 9 1815 10 569 12 1299 13 1886 15 1910
8627 0.15510027817965305 0.0046266411017985565 0.48060984592146194 236 222 212 -1 9 1814 10 568 12 1298 13 1885 14 1525 15 1909
8626 -0.0050110114315962129 -0.012536997757629953 0.65167399093469913 198 188 52 -1 10 567 12 1297 13 1884 15 1908
8625 0.11861835593478862 0.080106849964590054 0.57621757958835629 150 145 130 -1 9 1813 13 1883 14 1524 15 1907
8624 0.12810868143488835 0.0079032858609922041 0.53724161234292822 211 196 190 -1 9 1812 12 1296 13 1882 14 1523 15 1906
8623 0.099280857412894025 -0.078076828183329838 0.577615363738187 215 216 220 -1 9 1811 10 566 12 1295 13 1881 15 1905
8622 0.13061188315974226 -0.10484014632216143 0.55206859065204672 235 231 222 -1 9 1810 10 565 12 1294 13 1880 15 1904
8621 9.4648723349743946e-05 0.021092445703368767 0.82077772264575977 189 200 192 -1 13 1879 15 1903
8620 0.13915715537278828 -0.095130417817383073 0.53722096710545264 179 172 160 -1 10 564 12 1293 13 1878 15 1902
8619 0.15368223133467132 0.024752460951479871 0.5014454265019741 159 147 130 -1 9 1809 13 1877 14 1522 15 1901
8618 -0.14419287791977514 0.0078704217327786319 0.60097761265156124 187 184 50 -1 9 1808 12 1292 13 1876 14 1521 15 1900
8617 0.073796796355395294 0.087049990284032208 0.64594110976773078 219 211 202 -1 9 1807 13 1875 14 1520 15 1899
8616 -0.14821758767872817 -0.013772860309304136 0.59808253016963975 234 223 100 -1 9 1806 10 563 12 1291 13 1874 15 1898
8615 0.12471434816109914 -0.095706389339278108 0.56529665482736657 231 226 220 -1 10 562 12 1290 13 1873 15 1897
8614 0.14269724702869643 -0.02077246775748709 0.50903251904257651 227 222 216 -1 9 1805 10 561 12 1289 13 1872 15 1896
8613 -0.11198559247670051 -0.00080634640661081391 0.60190340665036146 196 163 49 -1 9 1804 12 1288 13 1871 15 1895
8612 -0.019960877425385104 0.035982409232618862 0.64830746594908084 27 84 72 -1 9 1803 12 1287 13 1870 14 1519 15 1894
8611 0.13146159131658391 0.0326864041186673 0.52813764711915401 230 222 211 -1 9 1802 12 1286 13 1869 14 1518 15 1893
8610 0.12449735203665216 0.076020304983087261 0.57877046826223344 144 139 127 -1 9 1801 13 1868 14 1517 15 1892
8609 0.093639936273110042 -0.040017003756089187 0.62137640736541921 213 206 196 -1 9 1800 10 560 13 1867 15 1891
8608 -0.057106906453373824 0.038763056984186806 0.66868257451840596 64 105 109 -1 9 1799 13 1866 14 1516 15 1890
8607 0.13120337360385589 -0.094333380344013951 0.55105932469947727 230 221 212 -1 10 559 12 1285 13 1865 15 1889
8606 0.10735741508203286 -0.10854723436263036 0.59685801272750605 223 205 198 -1 10 558 12 1284 13 1864 15 1888
8605 0.11216762908342559 -0.10975337795267004 0.58835283006887129 229 219 217 -1 10 557 12 1283 13 1863 15 1887
8604 0.067763785335449356 0.079668550450270936 0.66082309837338538 216 207 198 -1 9 1798 13 1862 14 1515 15 1886
8603 0.12923439454701197 -0.07211001640492376 0.55274456734673705 211 201 190 -1 10 556 12 1282 13 1861 15 1885
8602 0.13202453642964737 -0.1238036271175208 0.55522536086917673 185 181 172 -1 10 555 12 1281 13 1860 15 1884
8601 -0.061381146419926619 0.030514646303076987 0.64258849797404649 58 99 55 -1 9 1797 12 1280 13 1859 14 1514 15 1883
8600 0.1192899734461379 0.018849238710475724 0.55467526942338163 221 193 188 -1 9 1796 13 1858 14 1513 15 1882
8599 -0.12924336140363155 0.01507397012531142 0.6036464818640781 180 184 75 -1 9 1795 12 1279 13 1857 14 1512 15 1881
8598 0.14024929310933265 -0.043547710176893517 0.51826446618992505 232 222 220 -1 9 1794 10 554 12 1278 13 1856 15 1880
8597 0.0049248258445230841 -0.019530953570243814 0.66377225115819816 156 157 144 -1 10 553 12 1277 13 1855
8596 0.1281325266894075 -0.10276900678795908 0.55628131238687484 235 228 221 -1 10 552 12 1276 13 1854 15 1879
8595 -0.13982629962094978 -0.012565111821869923 0.59374426853036444 254 232 105 -1 9 1793 10 551 12 1275 13 1853 15 1878
8594 0.12982885474818465 -0.12985577739237941 0.55922387466194867 187 183 174 -1 10 550 12 1274 13 1852 15 1877
8593 0.10532488918437843 -0.054978533128616003 0.56796560262215845 157 152 164 -1 9 1792 10 549 12 1273 13 1851 15 1876
8592 -0.0070315367397094097 0.16714550969429898 0.79316490251448779 170 171 179 -1 9 1791 12 1272 13 1850 14 1511 15 1875
8591 0.060852029360854321 0.031335853733979291 0.67521354720506377 172 98 83 -1 9 1790 10 548 12 1271 13 1849 14 1510 15 1874
8590 0.10614572384586657 -0.00098840157171453669 0.55905046098387279 194 97 104 -1 9 1789 13 1848 14 1509 15 1873
8589 -0.022072477179643529 0.051527144997250418 0.67459656273809709 40 90 90 -1 9 1788 13 1847 14 1508 15 1872
8588 0.15123369791877692 0.01073659002298144 0.48715956464593008 236 224 214 -1 9 1787 10 547 12 1270 13 1846 14 1507 15 1871
8587 -0.038942181231488571 0.10646020305528348 0.84404859795348097 74 85 121 -1 9 1786 10 546 11 707 13 1845 14 1506 15 1870
8586 0.09013561301953979 -0.062174641680991072 0.58972450217261085 199 158 166 -1 9 1785 10 545 13 1844 14 1505 15 1869
8585 0.09155291411964539 0.052887951721577564 0.60851741529611425 220 212 201 -1 9 1784 13 1843 14 1504 15 1868
8584 0.097657665066130467 -0.055782215058899576 0.60490804495657546 215 208 206 -1 9 1783 10 544 13 1842 15 1867
8583 0.15108321030633209 -0.0083923075643664857 0.4890044470165591 235 229 225 -1 9 1782 10 543 12 1269 13 1841 14 1503 15 1866
8582 0.13888236765926032 -0.034558578762239445 0.5190248585625471 231 222 217 -1 9 1781 10 542 12 1268 13 1840 15 1865
8581 0.057236046390956918 -0.019666275469428451 0.69941706795521996 199 166 151 -1 10 541 12 1267 13 1839 15 1864
8580 0.12678216583995316 -0.044591731641143828 0.55065338874243441 203 193 186 -1 10 540 12 1266 13 1838 15 1863
8579 0.099859651668587068 -0.11197183839916802 0.59933425720922351 228 208 206 -1 10 539 12 1265 13 1837 15 1862
8578 -0.01695369402745539 0.017687607567100194 0.83019336246032316 235 239 230 -1 9 1780 10 538 13 1836 14 1502 15 1861
8577 0.1123382446186314 0.034184711372810539 0.57003883916377418 218 210 199 -1 9 1779 13 1835 14 1501 15 1860
8576 0.050745063091464093 0.042023629500143711 0.68545056317873188 180 75 64 -1 9 1778 12 1264 13 1834 14 1500 15 1859
8575 -0.0015877817379942316 -0.00082282820388790423 0.64616584282111267 204 167 28 -1 10 537 12 1263 13 1833 15 1858
8574 -0.047728880396390505 0.0093096469854695441 0.63424556583931169 218 204 60 -1 9 1777 10 536 12 1262 13 1832 15 1857
8573 -0.11766064284088701 -0.0070654028199725882 0.59122467701925263 207 175 54 -1 9 1776 12 1261 13 1831 15 1856
8572 0.13371431418914612 -0.086229950165619074 0.54426740963829867 219 209 199 -1 10 535 12 1260 13 1830 15 1855
8571 -0.12575958240153601 0.011160512655385313 0.60187763821534723 202 191 1 -1 9 1775 12 1259 13 1829 14 1499 15 1854
8570 0.097905677872362151 -0.073819147187757395 0.57459758795054494 205 209 217 -1 9 1774 10 534 12 1258 13 1828 15 1853
8569 -0.022993443667361196 0.028171931573484299 0.63907014560532671 103 120 30 -1 9 1773 12 1257 13 1827 14 1498 15 1852
8568 0.10632230591196706 -0.032465401395492477 0.55697952724079292 218 201 211 -1 9 1772 10 533 12 1256 13 1826 14 1497 15 1851
8567 0.1459079061757233 -0.023734398119485856 0.50240597728046388 226 221 215 -1 9 1771 10 532 12 1255 13 1825 15 1850
8566 0.13618323576696106 -0.077039975887432055 0.5347549163632016 216 208 195 -1 9 1770 10 531 12 1254 13 1824 15 1849
8565 -0.019794183927311026 0.0086026371777365718 0.63696380560949106 177 173 65 -1 9 1769 12 1253 13 1823 15 1848
8564 0.161701437986806 0.018472396584022666 0.4933223775001353 152 145 128 -1 9 1768 12 1252 13 1822 14 1496 15 1847
8563 0.037408434796120993 0.054712747606679657 0.73297591099273252 176 165 151 -1 9 1767 13 1821 14 1495 15 1846
8562 0.12965868360676652 0.048533054018211952 0.5336847186575564 185 174 161 -1 9 1766 13 1820 14 1494 15 1845
8561 -0.010132041754174259 0.025087868790552914 0.81915757405705536 237 238 227 -1 9 1765 10 530 11 706 13 1819 14 1493 15 1844
8560 -0.028204352854299175 0.12071127906137125 0.82317378912939132 205 224 246 -1 9 1764 10 529 11 705 13 1818 14 1492 15 1843
8559 0.15015607143852949 -0.022388141171098774 0.49620296499063216 231 223 215 -1 9 1763 10 528 12 1251 13 1817 15 1842
8558 0.15014591588657503 0.036321978103513008 0.51626612577107933 145 135 122 -1 9 1762 13 1816 14 1491 15 1841
8557 0.11587291356657806 -0.1184720872311259 0.58814886152822021 241 234 230 -1 10 527 12 1250 13 1815 15 1840
8556 0.093612234256900795 -0.035894680743957741 0.62256352609440169 191 184 171 -1 9 1761 10 526 13 1814 15 1839
8555 -0.10592088671714159 -0.0055559033193592899 0.62713561119782346 171 154 101 -1 12 1249 13 1813 15 1838
8554 0.13778215299946645 -0.044489966006189263 0.52558916320128657 231 222 215 -1 10 525 12 1248 13 1812 15 1837
8553 -0.036626377498175683 0.032109841891455826 0.64231116108790598 38 98 93 -1 9 1760 12 1247 13 1811 14 1490 15 1836
8552 -0.030158535819348242 -0.0025052508153459163 0.63799932436658535 114 103 30 -1 9 1759 10 524 12 1246 13 1810 15 1835
8551 -0.051517726508613193 0.027749084701423454 0.63769789462716853 118 140 51 -1 9 1758 12 1245 13 1809 14 1489 15 1834
8550 0.13002093248900909 0.023558738593399076 0.53033474855370499 227 218 209 -1 9 1757 12 1244 13 1808 14 1488 15 1833
8549 0.1022632440388711 -0.030139576321457029 0.58746730529398139 194 176 168 -1 9 1756 13 1807 14 1487 15 1832
8548 -0.0077126820364631365 0.10359931098187841 0.8176883851508685 213 204 194 -1 10 523 13 1806 14 1486 15 1831
8547 0.12913876826136766 0.0050112907620311065 0.53549936225939632 222 209 203 -1 9 1755 12 1243 13 1805 14 1485 15 1830
8546 0.15062009157935996 0.0049564255208786046 0.48730882140396864 236 229 222 -1 9 1754 10 522 12 1242 13 1804 14 1484 15 1829
8545 -0.12298335238630281 -0.018626343324329664 0.58072976801453868 178 124 104 -1 9 1753 10 521 12 1241 13 1803 15 1828
8544 -0.1150353174271431 0.009829665311157143 0.60149305233807659 177 149 22 -1 9 1752 12 1240 13 1802 14 1483 15 1827
8543 -0.068247610008782211 0.02862150379557693 0.63984964079850715 198 176 18 -1 9 1751 12 1239 13 1801 14 1482 15 1826
8542 0.11494501629389584 0.01575196130263945 0.56077334164812331 220 198 190 -1 9 1750 13 1800 14 1481 15 1825
8541 0.030790050625509546 0.04139655708490142 0.67417626278552922 153 142 46 -1 9 1749 12 1238 13 1799 14 1480 15 1824
8540 0.036835244846355308 -0.017804515856991943 0.70292568356077134 179 141 122 -1 10 520 12 1237 13 1798
8539 -0.023180874471094348 0.16278640678772976 0.80456281810669672 189 200 185 -1 9 1748 10 519 11 704 13 1797 14 1479 15 1823
8538 -0.13066110112946017 0.019877710732037923 0.61412562801576698 216 213 74 -1 9 1747 12 1236 13 1796 14 1478 15 1822
8537 -0.040728057228191755 0.026362045637607134 0.63647870091347691 102 128 42 -1 9 1746 12 1235 13 1795 14 1477 15 1821
8536 0.15414459214759896 -0.020625243050311215 0.48906552206436227 179 178 170 -1 9 1745 10 518 12 1234 13 1794 15 1820
8535 -0.068003571265465773 0.016437764847388014 0.6352883772437985 194 94 109 -1 9 1744 12 1233 13 1793 14 1476 15 1819
8534 0.096862919132743086 -0.058325723466824186 0.60660988231027524 220 206 206 -1 9 1743 10 517 13 1792 15 1818
8533 0.084842405618946931 -0.10870353203692351 0.61239579158174084 240 234 233 -1 9 1742 10 516 12 1232 13 1791 15 1817
8532 -0.057507382526539197 0.01352626940620083 0.63302625632141185 207 189 43 -1 9 1741 12 1231 13 1790 14 1475 15 1816
8531 -0.089140475917593637 -0.0078276014247650183 0.64294783181619741 190 118 116 -1 10 515 12 1230 13 1789 15 1815
8530 0.12215720794617979 -0.15054823071418844 0.57804798749286557 234 229 223 -1 10 514 12 1229 13 1788 15 1814
8529 0.14536685654135059 -0.0067987486006173548 0.50254191319502994 222 217 211 -1 9 1740 10 513 12 1228 13 1787 14 1474 15 1813
8528 0.0091297915768903115 -0.00053057887642260493 0.65652848590288893 116 111 77 -1 10 512 12 1227 13 1786 15 1812
8527 -0.027005018493849314 0.027258969728307103 0.63784335670213754 142 152 48 -1 9 1739 12 1226 13 1785 14 1473 15 1811
8526 0.06468983534608741 0.028251535269827821 0.67384960308523845 168 130 114 -1 9 1738 10 511 12 1225 13 1784 14 1472 15 1810
8525 -0.031790791745949731 0.1553200746108932 0.81565373353651516 218 219 207 -1 9 1737 10 510 11 703 13 1783 14 1471 15 1809
8524 0.15045823969518635 -0.012106440604190083 0.49156850827414267 230 224 218 -1 9 1736 10 509 12 1224 13 1782 14 1470 15 1808
8523 0.10906961116227659 0.006469310318785948 0.54522866435064365 225 107 117 -1 9 1735 10 508 12 1223 13 1781 14 1469 15 1807
8522 0.028466632893525967 0.012560115661675475 0.66755049594170046 179 159 38 -1 12 1222 13 1780 15 1806
8521 0.029323746457239785 0.072928285793757375 0.74726772225486537 204 196 186 -1 9 1734 13 1779 14 1468 15 1805
8520 0.098442581119427525 0.08408141248201384 0.58629323179490389 223 216 208 -1 9 1733 13 1778 14 1467 15 1804
8519 0.14253963974723532 -0.076126118716979274 0.52499437206468158 173 169 157 -1 10 507 12 1221 13 1777 15 1803
8518 0.15625903032448285 0.027559005344886534 0.50380527552715226 148 138 126 -1 9 1732 13 1776 14 1466 15 1802
8517 0.088601459718342102 -0.065457970868270543 0.58641845613055499 208 143 168 -1 9 1731 10 506 12 1220 13 1775 14 1465 15 1801
8516 0.13560977150710921 0.0045456017155646178 0.52043540364968588 226 217 212 -1 9 1730 10 505 12 1219 13 1774 14 1464 15 1800
8515 -0.13304758889951687 -0.02864272770787446 0.57155680389602037 193 106 80 -1 9 1729 10 504 12 1218 13 1773 15 1799
8514 0.13758118136809727 -0.04845557626860908 0.5263215828638711 231 222 216 -1 9 1728 10 503 12 1217 13 1772 15 1798
8513 0.139751714402231 0.00088324161730379824 0.51218221967789468 226 217 212 -1 9 1727 10 502 12 1216 13 1771 14 1463 15 1797
8512 -0.024550737379566784 0.014685407196904254 0.63688196363197691 211 187 37 -1 9 1726 12 1215 13 1770 15 1796
8511 0.15077727839229743 -0.013187796866061641 0.49116876611600169 225 214 208 -1 9 1725 10 501 12 1214 13 1769 14 1462 15 1795
8510 0.1007623874111083 -0.027165899245625513 0.60047725543344943 200 186 179 -1 9 1724 10 500 13 1768 14 1461 15 1794
8509 0.0069083816751966953 0.037105354291001147 0.6552392075591652 145 156 39 -1 9 1723 12 1213 13 1767 14 1460 15 1793
8508 -0.049334699439246482 -0.019394947489164593 0.65385904931783401 215 199 41 -1 10 499 12 1212 13 1766 15 1792
8507 -0.023942246118282717 0.16982950154704474 0.80887300411180563 210 212 191 -1 9 1722 10 498 11 702 13 1765 14 1459 15 1791
8506 0.1333376824946777 0.060364335900126798 0.5486516560024195 147 140 128 -1 9 1721 13 1764 14 1458 15 1790
8505 0.11897980807444158 0.026112612770057053 0.55646429496887817 218 209 200 -1 9 1720 13 1763 14 1457 15 1789
